ply
format ascii 1.0
comment Created by Open3D
element vertex 3270
property double x
property double y
property double z
end_header
94 11 -99.9256
95 11 -99.9256
96 11 -99.9256
97 11 -99.9256
98 11 -99.9256
99 11 -99.9256
100 11 -99.9256
101 11 -99.9256
102 11 -99.9256
103 11 -99.9256
104 11 -99.9256
105 11 -99.9256
106 11 -99.9256
107 11 -99.9256
108 11 -99.9256
109 11 -99.9256
110 11 -99.9256
111 11 -99.9256
112 11 -99.9256
113 11 -99.9256
114 11 -99.9256
115 11 -99.9256
116 11 -99.9256
117 11 -99.9256
118 11 -99.9256
119 11 -99.9256
0 12 -99.9256
1 12 -99.9256
2 12 -99.9256
3 12 -99.9256
4 12 -99.9256
5 12 -99.9256
6 12 -99.9256
7 12 -99.9256
8 12 -99.9256
9 12 -99.9256
10 12 -99.9256
11 12 -99.9256
12 12 -99.9256
13 12 -99.9256
14 12 -99.9256
15 12 -99.9256
16 12 -99.9256
17 12 -99.9256
18 12 -99.9256
19 12 -99.9256
20 12 -99.9256
21 12 -99.9256
22 12 -99.9256
23 12 -99.9256
24 12 -99.9256
25 12 -99.9256
26 12 -99.9256
27 12 -99.9256
28 12 -99.9256
29 12 -99.9256
30 12 -99.9256
31 12 -99.9256
32 12 0.411959
33 12 0.910878
34 12 1.55555
35 12 1.52502
36 12 1.55597
37 12 1.63793
38 12 1.60784
39 12 1.52742
40 12 1.14997
41 12 -98.3406
42 12 1.15149
43 12 0.92217
44 12 1.04983
45 12 1.07178
46 12 1.0047
47 12 1.18717
48 12 0.717563
49 12 1.25503
50 12 1.05453
51 12 1.00184
52 12 0.286286
53 12 -0.479317
54 12 -99.9256
55 12 -99.9256
56 12 -99.9256
57 12 -99.9256
58 12 -99.9256
59 12 -99.9256
60 12 -99.9256
61 12 -99.9256
62 12 -99.9256
63 12 -99.9256
64 12 -99.9256
65 12 -99.9256
66 12 -99.9256
67 12 -99.9256
68 12 -99.9256
69 12 -99.9256
70 12 -99.9256
71 12 -99.9256
72 12 -99.9256
73 12 -99.9256
74 12 0.933724
75 12 -1.31236
76 12 -99.9256
77 12 -99.9256
78 12 -99.9256
79 12 -99.9256
80 12 -99.9256
81 12 -99.9256
82 12 -99.9256
83 12 -99.9256
84 12 -99.9256
85 12 -99.9256
86 12 -99.9256
87 12 -99.9256
88 12 -99.9256
89 12 -99.9256
90 12 -99.9256
91 12 -99.9256
92 12 -99.9256
93 12 -99.9256
94 12 -99.9256
95 12 -99.9256
96 12 -99.9256
97 12 -99.9256
98 12 -99.9256
99 12 -99.9256
100 12 -99.9256
101 12 -99.9256
102 12 -99.9256
103 12 -99.9256
104 12 -99.9256
105 12 -99.9256
106 12 -99.9256
107 12 -99.9256
108 12 -99.9256
109 12 -99.9256
110 12 -99.9256
111 12 -99.9256
112 12 -99.9256
113 12 -99.9256
114 12 -99.9256
115 12 -99.9256
116 12 -99.9256
117 12 -99.9256
118 12 -99.9256
119 12 -99.9256
0 13 -99.9256
1 13 -99.9256
2 13 -99.9256
3 13 -99.9256
4 13 -99.9256
5 13 -99.9256
6 13 -99.9256
7 13 -99.9256
8 13 -99.9256
9 13 -99.9256
10 13 -99.9256
11 13 -99.9256
12 13 -99.9256
13 13 -99.9256
14 13 -99.9256
15 13 -99.9256
16 13 -99.9256
17 13 -99.9256
18 13 -99.9256
19 13 -99.9256
20 13 -99.9256
21 13 -99.9256
22 13 -99.9256
23 13 -99.9256
24 13 -99.9256
25 13 -99.9256
26 13 -99.9256
27 13 -99.9256
28 13 -99.9256
29 13 -99.9256
30 13 0.102066
31 13 0.772325
32 13 1.05394
33 13 0.965526
34 13 1.66615
35 13 1.55815
36 13 1.53488
37 13 1.66074
38 13 1.71153
39 13 1.62906
40 13 1.18645
41 13 -97.8574
42 13 1.12245
43 13 0.804742
44 13 0.897743
45 13 0.829565
46 13 0.615702
47 13 0.659443
48 13 -0.0254145
49 13 0.561136
50 13 0.189238
51 13 0.290407
52 13 1.12184
53 13 0.668652
54 13 -0.176452
55 13 -0.717287
56 13 -99.9256
57 13 -99.9256
58 13 -99.9256
59 13 -99.9256
60 13 -99.9256
61 13 -99.9256
62 13 -99.9256
63 13 -99.9256
64 13 -99.9256
65 13 -99.9256
66 13 -99.9256
67 13 -99.9256
68 13 -99.9256
69 13 -99.9256
70 13 -99.9256
71 13 -99.9256
72 13 3.48413
73 13 -0.0123527
74 13 1.81272
75 13 -0.58996
76 13 1.06304
77 13 -3.99607
78 13 -99.9256
79 13 -99.9256
80 13 -99.9256
81 13 -99.9256
82 13 -99.9256
83 13 -99.9256
84 13 -99.9256
85 13 -99.9256
86 13 -99.9256
87 13 -99.9256
88 13 -99.9256
89 13 -99.9256
90 13 -99.9256
91 13 -99.9256
92 13 -99.9256
93 13 -99.9256
94 13 -99.9256
95 13 -99.9256
96 13 -99.9256
97 13 -99.9256
98 13 -99.9256
99 13 -99.9256
100 13 -99.9256
101 13 -99.9256
102 13 -99.9256
103 13 -99.9256
104 13 -99.9256
105 13 -99.9256
106 13 -99.9256
107 13 -99.9256
108 13 -99.9256
109 13 -99.9256
110 13 -99.9256
111 13 -99.9256
112 13 -99.9256
113 13 -99.9256
114 13 -99.9256
115 13 -99.9256
116 13 -99.9256
117 13 -99.9256
118 13 -99.9256
119 13 -99.9256
0 14 -99.9256
1 14 -99.9256
2 14 -99.9256
3 14 -99.9256
4 14 -99.9256
5 14 -99.9256
6 14 -99.9256
7 14 -99.9256
8 14 -99.9256
9 14 -99.9256
10 14 -99.9256
11 14 -99.9256
12 14 -99.9256
13 14 -99.9256
14 14 -99.9256
15 14 -99.9256
16 14 -99.9256
17 14 -99.9256
18 14 -99.9256
19 14 -99.9256
20 14 -99.9256
21 14 -99.9256
22 14 -99.9256
23 14 -99.9256
24 14 -99.9256
25 14 -99.9256
26 14 -99.9256
27 14 -99.9256
28 14 0.574495
29 14 1.35203
30 14 2.35372
31 14 2.64638
32 14 2.88871
33 14 2.8894
34 14 3.55905
35 14 3.41845
36 14 3.3886
37 14 3.45417
38 14 3.34851
39 14 3.11095
40 14 2.63705
41 14 -96.0042
42 14 2.48363
43 14 2.08003
44 14 2.13797
45 14 2.03658
46 14 1.87475
47 14 1.91741
48 14 1.25384
49 14 1.77991
50 14 1.41693
51 14 1.43064
52 14 2.08343
53 14 1.44043
54 14 0.58554
55 14 0.333443
56 14 -0.371946
57 14 -0.781296
58 14 0.760977
59 14 -99.9256
60 14 -99.9256
61 14 -99.9256
62 14 -99.9256
63 14 -99.9256
64 14 -99.9256
65 14 -99.9256
66 14 -99.9256
67 14 -99.9256
68 14 -99.9256
69 14 -99.9256
70 14 1.89592
71 14 1.68229
72 14 2.05227
73 14 0.513205
74 14 2.42663
75 14 -0.0452275
76 14 1.63024
77 14 -3.54104
78 14 0.983335
79 14 2.86373
80 14 -99.9256
81 14 -99.9256
82 14 -99.9256
83 14 -99.9256
84 14 -99.9256
85 14 -99.9256
86 14 -99.9256
87 14 -99.9256
88 14 -99.9256
89 14 -99.9256
90 14 -99.9256
91 14 -99.9256
92 14 -99.9256
93 14 -99.9256
94 14 -99.9256
95 14 -99.9256
96 14 -99.9256
97 14 -99.9256
98 14 -99.9256
99 14 -99.9256
100 14 -99.9256
101 14 -99.9256
102 14 -99.9256
103 14 -99.9256
104 14 -99.9256
105 14 -99.9256
106 14 -99.9256
107 14 -99.9256
108 14 -99.9256
109 14 -99.9256
110 14 -99.9256
111 14 -99.9256
112 14 -99.9256
113 14 -99.9256
114 14 -99.9256
115 14 -99.9256
116 14 -99.9256
117 14 -99.9256
118 14 -99.9256
119 14 -99.9256
0 15 -99.9256
1 15 -99.9256
2 15 -99.9256
3 15 -99.9256
4 15 -99.9256
5 15 -99.9256
6 15 -99.9256
7 15 -99.9256
8 15 -99.9256
9 15 -99.9256
10 15 -99.9256
11 15 -99.9256
12 15 -99.9256
13 15 -99.9256
14 15 -99.9256
15 15 -99.9256
16 15 -99.9256
17 15 -99.9256
18 15 -99.9256
19 15 -99.9256
20 15 -99.9256
21 15 -99.9256
22 15 -99.9256
23 15 -99.9256
24 15 -99.9256
25 15 -99.9256
26 15 -99.9256
27 15 -99.9256
28 15 1.51837
29 15 2.71113
30 15 4.00316
31 15 4.29993
32 15 4.43278
33 15 4.45051
34 15 5.19307
35 15 5.05942
36 15 5.06841
37 15 5.17936
38 15 5.1112
39 15 4.94946
40 15 4.50472
41 15 -93.6294
42 15 4.46196
43 15 4.07478
44 15 4.24862
45 15 4.16626
46 15 4.07323
47 15 4.16418
48 15 3.57456
49 15 4.16019
50 15 3.82032
51 15 3.89596
52 15 4.64425
53 15 4.04421
54 15 3.44653
55 15 3.29512
56 15 2.75562
57 15 2.15377
58 15 0.609191
59 15 1.37065
60 15 1.06586
61 15 -99.9256
62 15 -99.9256
63 15 -99.9256
64 15 -99.9256
65 15 -99.9256
66 15 -99.9256
67 15 -99.9256
68 15 -99.9256
69 15 4.40958
70 15 2.06207
71 15 2.72572
72 15 3.52708
73 15 1.87203
74 15 3.98449
75 15 1.369
76 15 3.35477
77 15 -2.05791
78 15 2.89323
79 15 3.37784
80 15 1.90608
81 15 -0.972472
82 15 -99.9256
83 15 -99.9256
84 15 -99.9256
85 15 -99.9256
86 15 -99.9256
87 15 -99.9256
88 15 -99.9256
89 15 -99.9256
90 15 -99.9256
91 15 -99.9256
92 15 -99.9256
93 15 -99.9256
94 15 -99.9256
95 15 -99.9256
96 15 -99.9256
97 15 -99.9256
98 15 -99.9256
99 15 -99.9256
100 15 -99.9256
101 15 -99.9256
102 15 -99.9256
103 15 -99.9256
104 15 -99.9256
105 15 -99.9256
106 15 -99.9256
107 15 -99.9256
108 15 -99.9256
109 15 -99.9256
110 15 -99.9256
111 15 -99.9256
112 15 -99.9256
113 15 -99.9256
114 15 -99.9256
115 15 -99.9256
116 15 -99.9256
117 15 -99.9256
118 15 -99.9256
119 15 -99.9256
0 16 -99.9256
1 16 -99.9256
2 16 -99.9256
3 16 -99.9256
4 16 -99.9256
5 16 -99.9256
6 16 -99.9256
7 16 -99.9256
8 16 -99.9256
9 16 -99.9256
10 16 -99.9256
11 16 -99.9256
12 16 -99.9256
13 16 -99.9256
14 16 -99.9256
15 16 -99.9256
16 16 -99.9256
17 16 -99.9256
18 16 -99.9256
19 16 -99.9256
20 16 -99.9256
21 16 -99.9256
22 16 -99.9256
23 16 -99.9256
24 16 -99.9256
25 16 -99.9256
26 16 -99.9256
27 16 -4.34205
28 16 -1.16248
29 16 -0.114094
30 16 0.995555
31 16 1.22972
32 16 1.30489
33 16 1.28084
34 16 2.03498
35 16 1.84818
36 16 1.82642
37 16 1.9276
38 16 1.82216
39 16 1.59268
40 16 1.14409
41 16 -96.5837
42 16 1.02486
43 16 0.620184
44 16 0.792539
45 16 0.709521
46 16 0.590289
47 16 0.644761
48 16 0.0554481
49 16 0.596251
50 16 0.278582
51 16 0.294301
52 16 1.05392
53 16 0.404375
54 16 -0.260651
55 16 -0.528485
56 16 -1.06704
57 16 -1.26258
58 16 -2.87036
59 16 -1.49163
60 16 -5.51917
61 16 4.86739
62 16 -99.9256
63 16 -99.9256
64 16 -99.9256
65 16 -99.9256
66 16 -99.9256
67 16 -0.216242
68 16 29.5267
69 16 0.845307
70 16 -1.24564
71 16 -0.47551
72 16 0.168323
73 16 -1.70255
74 16 0.51539
75 16 -2.25102
76 16 -0.222448
77 16 -6.00034
78 16 -0.636633
79 16 -0.103461
80 16 -2.0386
81 16 1.27319
82 16 1.26395
83 16 -99.9256
84 16 -99.9256
85 16 -99.9256
86 16 -99.9256
87 16 -99.9256
88 16 -99.9256
89 16 -99.9256
90 16 -99.9256
91 16 -99.9256
92 16 -99.9256
93 16 -99.9256
94 16 -99.9256
95 16 -99.9256
96 16 -99.9256
97 16 -99.9256
98 16 -99.9256
99 16 -99.9256
100 16 -99.9256
101 16 -99.9256
102 16 -99.9256
103 16 -99.9256
104 16 -99.9256
105 16 -99.9256
106 16 -99.9256
107 16 -99.9256
108 16 -99.9256
109 16 -99.9256
110 16 -99.9256
111 16 -99.9256
112 16 -99.9256
113 16 -99.9256
114 16 -99.9256
115 16 -99.9256
116 16 -99.9256
117 16 -99.9256
118 16 -99.9256
119 16 -99.9256
0 17 -99.9256
1 17 -99.9256
2 17 -99.9256
3 17 -99.9256
4 17 -99.9256
5 17 -99.9256
6 17 -99.9256
7 17 -99.9256
8 17 -99.9256
9 17 -99.9256
10 17 -99.9256
11 17 -99.9256
12 17 -99.9256
13 17 -99.9256
14 17 -99.9256
15 17 -99.9256
16 17 -99.9256
17 17 -99.9256
18 17 -99.9256
19 17 -99.9256
20 17 -99.9256
21 17 -99.9256
22 17 -99.9256
23 17 -99.9256
24 17 -99.9256
25 17 -99.9256
26 17 -99.9256
27 17 -0.128263
28 17 -0.902572
29 17 0.228263
30 17 1.30462
31 17 1.49541
32 17 1.46388
33 17 1.42406
34 17 2.16075
35 17 1.92024
36 17 1.89544
37 17 1.9571
38 17 1.84391
39 17 1.5669
40 17 1.09769
41 17 -96.1891
42 17 0.961465
43 17 0.539573
44 17 0.696777
45 17 0.628421
46 17 0.511151
47 17 0.536336
48 17 -0.0268812
49 17 0.476854
50 17 0.177037
51 17 0.188839
52 17 0.963832
53 17 0.292811
54 17 -0.35124
55 17 -0.639708
56 17 -1.18362
57 17 -1.50393
58 17 -2.98356
59 17 -1.32414
60 17 -5.30588
61 17 4.85233
62 17 -3.89518
63 17 -99.9256
64 17 -99.9256
65 17 -99.9256
66 17 10.9132
67 17 -0.837623
68 17 31.1788
69 17 1.09995
70 17 -1.31429
71 17 -0.558771
72 17 0.301479
73 17 -1.82521
74 17 0.528856
75 17 -2.39535
76 17 -0.267249
77 17 -6.40289
78 17 -0.779441
79 17 -0.121117
80 17 -2.15449
81 17 1.20894
82 17 1.29995
83 17 -0.979397
84 17 0.727037
85 17 0.948035
86 17 -1.40822
87 17 -99.9256
88 17 -99.9256
89 17 -99.9256
90 17 -99.9256
91 17 -99.9256
92 17 -99.9256
93 17 -99.9256
94 17 -99.9256
95 17 -99.9256
96 17 -99.9256
97 17 -99.9256
98 17 -99.9256
99 17 -99.9256
100 17 -99.9256
101 17 -99.9256
102 17 -99.9256
103 17 -99.9256
104 17 -99.9256
105 17 -99.9256
106 17 -99.9256
107 17 -99.9256
108 17 -99.9256
109 17 -99.9256
110 17 -99.9256
111 17 -99.9256
112 17 -99.9256
113 17 -99.9256
114 17 -99.9256
115 17 -99.9256
116 17 -99.9256
117 17 -99.9256
118 17 -99.9256
119 17 -99.9256
0 18 -99.9256
1 18 -99.9256
2 18 -99.9256
3 18 -99.9256
4 18 -99.9256
5 18 -99.9256
6 18 -99.9256
7 18 -99.9256
8 18 -99.9256
9 18 -99.9256
10 18 -99.9256
11 18 -99.9256
12 18 -99.9256
13 18 -99.9256
14 18 -99.9256
15 18 -99.9256
16 18 -99.9256
17 18 -99.9256
18 18 -99.9256
19 18 -99.9256
20 18 -99.9256
21 18 -99.9256
22 18 -99.9256
23 18 -99.9256
24 18 -99.9256
25 18 -99.9256
26 18 -99.9256
27 18 7.26334
28 18 2.57475
29 18 3.84408
30 18 4.87646
31 18 5.04477
32 18 4.94275
33 18 4.91131
34 18 5.65623
35 18 5.3733
36 18 5.31359
37 18 5.3954
38 18 5.26795
39 18 4.96873
40 18 4.48378
41 18 -92.3481
42 18 4.32985
43 18 3.89791
44 18 4.06451
45 18 3.96677
46 18 3.85722
47 18 3.89743
48 18 3.33519
49 18 3.8419
50 18 3.53754
51 18 3.53293
52 18 4.3515
53 18 3.66639
54 18 3.01983
55 18 2.70926
56 18 2.15593
57 18 1.83736
58 18 0.335217
59 18 1.9502
60 18 -1.91439
61 18 9.16606
62 18 -0.362407
63 18 -0.334175
64 18 -99.9256
65 18 0.279371
66 18 16.0739
67 18 3.87406
68 18 37.9209
69 18 5.88841
70 18 3.46222
71 18 4.24166
72 18 5.2804
73 18 2.88971
74 18 5.3707
75 18 2.31677
76 18 4.54197
77 18 -1.95217
78 18 4.00991
79 18 4.6918
80 18 2.54977
81 18 6.06406
82 18 6.25797
83 18 3.42746
84 18 4.75934
85 18 5.59913
86 18 2.67001
87 18 4.52286
88 18 5.07801
89 18 2.43496
90 18 13.5785
91 18 -99.9256
92 18 -1.70589
93 18 -99.9256
94 18 -99.9256
95 18 -99.9256
96 18 -99.9256
97 18 -99.9256
98 18 -99.9256
99 18 -99.9256
100 18 -99.9256
101 18 -99.9256
102 18 -99.9256
103 18 -99.9256
104 18 -99.9256
105 18 -99.9256
106 18 -99.9256
107 18 -99.9256
108 18 -99.9256
109 18 -99.9256
110 18 -99.9256
111 18 -99.9256
112 18 -99.9256
113 18 -99.9256
114 18 -99.9256
115 18 -99.9256
116 18 -99.9256
117 18 -99.9256
118 18 -99.9256
119 18 -99.9256
0 19 -99.9256
1 19 -99.9256
2 19 -99.9256
3 19 -99.9256
4 19 -99.9256
5 19 -99.9256
6 19 -99.9256
7 19 -99.9256
8 19 -99.9256
9 19 -99.9256
10 19 -99.9256
11 19 -99.9256
12 19 -99.9256
13 19 -99.9256
14 19 -99.9256
15 19 -99.9256
16 19 -99.9256
17 19 -99.9256
18 19 -99.9256
19 19 -99.9256
20 19 -99.9256
21 19 -99.9256
22 19 -99.9256
23 19 -99.9256
24 19 -99.9256
25 19 -99.9256
26 19 -99.9256
27 19 7.17413
28 19 1.97773
29 19 3.23888
30 19 4.21803
31 19 4.28993
32 19 4.0701
33 19 4.02647
34 19 4.73409
35 19 4.35402
36 19 4.27714
37 19 4.30656
38 19 4.15682
39 19 3.78651
40 19 3.2697
41 19 -93.1511
42 19 2.99917
43 19 2.54818
44 19 2.70575
45 19 2.55078
46 19 2.44011
47 19 2.43247
48 19 1.83907
49 19 2.30382
50 19 1.94692
51 19 1.89973
52 19 2.69804
53 19 1.95829
54 19 1.30657
55 19 0.932643
56 19 0.314742
57 19 -0.036233
58 19 -1.55279
59 19 0.0174455
60 19 -3.95206
61 19 7.5576
62 19 -1.92324
63 19 -2.29251
64 19 -2.04535
65 19 -1.25145
66 19 15.6857
67 19 2.74921
68 19 38.3721
69 19 4.66978
70 19 2.18127
71 19 2.93394
72 19 4.12787
73 19 1.47097
74 19 4.03845
75 19 0.79409
76 19 3.08389
77 19 -3.78316
78 19 2.49169
79 19 3.18822
80 19 0.900912
81 19 4.45465
82 19 4.73759
83 19 1.79961
84 19 3.27723
85 19 4.09989
86 19 1.07678
87 19 3.03391
88 19 3.33456
89 19 0.545768
90 19 12.2166
91 19 3.68273
92 19 2.87859
93 19 -1.65738
94 19 -3.83041
95 19 -0.0734925
96 19 -11.0463
97 19 -1.00183
98 19 -3.66238
99 19 -0.268287
100 19 -99.9256
101 19 -0.412016
102 19 -99.9256
103 19 -99.9256
104 19 -99.9256
105 19 -99.9256
106 19 -99.9256
107 19 -99.9256
108 19 -99.9256
109 19 -99.9256
110 19 -99.9256
111 19 -99.9256
112 19 -99.9256
113 19 -99.9256
114 19 -99.9256
115 19 -99.9256
116 19 -99.9256
117 19 -99.9256
118 19 -99.9256
119 19 -99.9256
0 20 -99.9256
1 20 -99.9256
2 20 -99.9256
3 20 -99.9256
4 20 -99.9256
5 20 -99.9256
6 20 -99.9256
7 20 -99.9256
8 20 -99.9256
9 20 -99.9256
10 20 -99.9256
11 20 -99.9256
12 20 -99.9256
13 20 -99.9256
14 20 -99.9256
15 20 -99.9256
16 20 -99.9256
17 20 -99.9256
18 20 -99.9256
19 20 -99.9256
20 20 -99.9256
21 20 -99.9256
22 20 -99.9256
23 20 -99.9256
24 20 -99.9256
25 20 -99.9256
26 20 -99.9256
27 20 10.493
28 20 4.68732
29 20 5.99119
30 20 7.00492
31 20 7.08715
32 20 6.85742
33 20 6.82663
34 20 7.61584
35 20 7.21943
36 20 7.14342
37 20 7.22424
38 20 7.07543
39 20 6.7409
40 20 6.26733
41 20 -89.6701
42 20 6.0752
43 20 5.67452
44 20 5.9146
45 20 5.75154
46 20 5.67106
47 20 5.71805
48 20 5.17583
49 20 5.63091
50 20 5.35996
51 20 5.40429
52 20 6.21946
53 20 5.555
54 20 4.91891
55 20 4.59099
56 20 4.02038
57 20 3.72912
58 20 2.23773
59 20 3.85299
60 20 -0.157039
61 20 12.006
62 20 2.09163
63 20 2.10446
64 20 2.24268
65 20 3.30065
66 20 21.0063
67 20 7.54365
68 20 44.9698
69 20 9.6864
70 20 7.18107
71 20 8.02764
72 20 9.4519
73 20 6.65975
74 20 9.4051
75 20 6.0555
76 20 8.50699
77 20 1.35406
78 20 7.99892
79 20 8.86457
80 20 6.4797
81 20 10.1281
82 20 10.5613
83 20 7.53112
84 20 9.11292
85 20 10.074
86 20 7.00568
87 20 9.24951
88 20 9.86783
89 20 7.25134
90 20 19.6973
91 20 10.6709
92 20 9.71685
93 20 5.57246
94 20 3.35025
95 20 7.58781
96 20 -5.85003
97 20 2.49947
98 20 -1.59951
99 20 0.850878
100 20 3.76832
101 20 -0.497647
102 20 -1.52305
103 20 -99.9256
104 20 -99.9256
105 20 -99.9256
106 20 -99.9256
107 20 -99.9256
108 20 -99.9256
109 20 -99.9256
110 20 -99.9256
111 20 -99.9256
112 20 -99.9256
113 20 -99.9256
114 20 -99.9256
115 20 -99.9256
116 20 -99.9256
117 20 -99.9256
118 20 -99.9256
119 20 -99.9256
0 21 -99.9256
1 21 -99.9256
2 21 -99.9256
3 21 -99.9256
4 21 -99.9256
5 21 -99.9256
6 21 -99.9256
7 21 -99.9256
8 21 -99.9256
9 21 -99.9256
10 21 -99.9256
11 21 -99.9256
12 21 -99.9256
13 21 -99.9256
14 21 -99.9256
15 21 -99.9256
16 21 -99.9256
17 21 -99.9256
18 21 -99.9256
19 21 -99.9256
20 21 -99.9256
21 21 -99.9256
22 21 -99.9256
23 21 -99.9256
24 21 -99.9256
25 21 -99.9256
26 21 -99.9256
27 21 9.80384
28 21 3.84413
29 21 5.18676
30 21 6.13527
31 21 6.11903
32 21 5.7664
33 21 5.71971
34 21 6.4606
35 21 5.98523
36 21 5.87112
37 21 5.9259
38 21 5.73638
39 21 5.30223
40 21 4.78177
41 21 -90.7763
42 21 4.43932
43 21 3.99869
44 21 4.21642
45 21 4.00552
46 21 3.88981
47 21 3.90101
48 21 3.29969
49 21 3.75466
50 21 3.38096
51 21 3.40121
52 21 4.17459
53 21 3.43535
54 21 2.74837
55 21 2.38111
56 21 1.77369
57 21 1.43547
58 21 -0.110041
59 21 1.46428
60 21 -2.59536
61 21 10.0923
62 21 -0.273766
63 21 -0.419657
64 21 -0.349148
65 21 0.487652
66 21 18.9751
67 21 4.8898
68 21 44.065
69 21 7.01746
70 21 4.45598
71 21 5.23798
72 21 6.81722
73 21 3.77911
74 21 6.66362
75 21 3.13354
76 21 5.66284
77 21 -1.85291
78 21 5.07959
79 21 5.95087
80 21 3.40187
81 21 7.11588
82 21 7.59667
83 21 4.37926
84 21 6.00753
85 21 6.98272
86 21 3.73089
87 21 6.01326
88 21 6.67071
89 21 3.8355
90 21 16.9664
91 21 7.60326
92 21 6.474
93 21 2.54599
94 21 0.426832
95 21 4.97161
96 21 -8.7728
97 21 0.18601
98 21 -3.88025
99 21 -1.07292
100 21 0.800891
101 21 -2.78807
102 21 -99.9256
103 21 -99.9256
104 21 -99.9256
105 21 -99.9256
106 21 -99.9256
107 21 -99.9256
108 21 -99.9256
109 21 -99.9256
110 21 -99.9256
111 21 -99.9256
112 21 -99.9256
113 21 -99.9256
114 21 -99.9256
115 21 -99.9256
116 21 -99.9256
117 21 -99.9256
118 21 -99.9256
119 21 -99.9256
0 22 -99.9256
1 22 -99.9256
2 22 -99.9256
3 22 -99.9256
4 22 -99.9256
5 22 -99.9256
6 22 -99.9256
7 22 -99.9256
8 22 -99.9256
9 22 -99.9256
10 22 -99.9256
11 22 -99.9256
12 22 -99.9256
13 22 -99.9256
14 22 -99.9256
15 22 -99.9256
16 22 -99.9256
17 22 -99.9256
18 22 -99.9256
19 22 -99.9256
20 22 -99.9256
21 22 -99.9256
22 22 -99.9256
23 22 -99.9256
24 22 -99.9256
25 22 -99.9256
26 22 -99.9256
27 22 10.2717
28 22 4.43822
29 22 5.61023
30 22 6.60648
31 22 6.52836
32 22 6.1297
33 22 6.04875
34 22 6.8168
35 22 6.30928
36 22 6.16607
37 22 6.2197
38 22 6.00893
39 22 5.55731
40 22 4.99546
41 22 -90.1038
42 22 4.62584
43 22 4.16115
44 22 4.41455
45 22 4.20861
46 22 4.07972
47 22 4.12117
48 22 3.47403
49 22 3.94586
50 22 3.55782
51 22 3.56498
52 22 4.3791
53 22 3.61282
54 22 2.88921
55 22 2.49
56 22 1.86585
57 22 1.4963
58 22 -0.031027
59 22 1.55225
60 22 -2.57983
61 22 10.7344
62 22 -0.225485
63 22 -0.468663
64 22 -0.539809
65 22 0.172095
66 22 19.339
67 22 4.59487
68 22 45.549
69 22 6.82626
70 22 4.22308
71 22 4.98785
72 22 6.76994
73 22 3.46689
74 22 6.5314
75 22 2.85699
76 22 5.4875
77 22 -2.36243
78 22 4.91303
79 22 5.81251
80 22 3.15413
81 22 6.96985
82 22 7.53615
83 22 4.16714
84 22 5.89007
85 22 6.87975
86 22 3.5219
87 22 5.9066
88 22 6.61744
89 22 3.68589
90 22 17.4498
91 22 7.67865
92 22 6.32326
93 22 2.41346
94 22 0.192011
95 22 4.96633
96 22 -9.43048
97 22 -0.103735
98 22 -4.42025
99 22 -1.6334
100 22 0.829718
101 22 -2.39231
102 22 -99.9256
103 22 -99.9256
104 22 -99.9256
105 22 -99.9256
106 22 -99.9256
107 22 -99.9256
108 22 -99.9256
109 22 -99.9256
110 22 -99.9256
111 22 -99.9256
112 22 -99.9256
113 22 -99.9256
114 22 -99.9256
115 22 -99.9256
116 22 -99.9256
117 22 -99.9256
118 22 -99.9256
119 22 -99.9256
0 23 -99.9256
1 23 -99.9256
2 23 -99.9256
3 23 -99.9256
4 23 -99.9256
5 23 -99.9256
6 23 -99.9256
7 23 -99.9256
8 23 -99.9256
9 23 -99.9256
10 23 -99.9256
11 23 -99.9256
12 23 -99.9256
13 23 -99.9256
14 23 -99.9256
15 23 -99.9256
16 23 -99.9256
17 23 -99.9256
18 23 -99.9256
19 23 -99.9256
20 23 -99.9256
21 23 -99.9256
22 23 -99.9256
23 23 -99.9256
24 23 -99.9256
25 23 -99.9256
26 23 -3.25073
27 23 8.70018
28 23 3.09626
29 23 4.16008
30 23 5.19068
31 23 5.09955
32 23 4.67724
33 23 4.6066
34 23 5.41994
35 23 4.8812
36 23 4.77515
37 23 4.8611
38 23 4.67466
39 23 4.206
40 23 3.66481
41 23 -90.9576
42 23 3.33916
43 23 2.92166
44 23 3.1913
45 23 3.01533
46 23 2.89494
47 23 2.99768
48 23 2.38087
49 23 2.85847
50 23 2.49758
51 23 2.51467
52 23 3.36204
53 23 2.63074
54 23 1.96814
55 23 1.5815
56 23 0.988609
57 23 0.642875
58 23 -0.830029
59 23 0.791419
60 23 -3.29539
61 23 10.4802
62 23 -1.05964
63 23 -1.37902
64 23 -1.51523
65 23 -0.878522
66 23 19.0434
67 23 3.5916
68 23 46.2504
69 23 5.93098
70 23 3.32649
71 23 4.15964
72 23 6.15175
73 23 2.64149
74 23 5.93437
75 23 2.1572
76 23 4.91171
77 23 -3.23059
78 23 4.40787
79 23 5.4053
80 23 2.63233
81 23 6.56411
82 23 7.27131
83 23 3.80517
84 23 5.64733
85 23 6.72907
86 23 3.29333
87 23 5.79094
88 23 6.58104
89 23 3.60729
90 23 18.0288
91 23 7.89065
92 23 6.37647
93 23 2.50196
94 23 0.259185
95 23 5.31528
96 23 -9.5564
97 23 0.278338
98 23 -4.19085
99 23 -1.18211
100 23 1.12435
101 23 -2.47617
102 23 -99.9256
103 23 -99.9256
104 23 -99.9256
105 23 -99.9256
106 23 -99.9256
107 23 -99.9256
108 23 -99.9256
109 23 -99.9256
110 23 -99.9256
111 23 -99.9256
112 23 -99.9256
113 23 -99.9256
114 23 -99.9256
115 23 -99.9256
116 23 -99.9256
117 23 -99.9256
118 23 -99.9256
119 23 -99.9256
0 24 -99.9256
1 24 -99.9256
2 24 -99.9256
3 24 -99.9256
4 24 -99.9256
5 24 -99.9256
6 24 -99.9256
7 24 -99.9256
8 24 -99.9256
9 24 -99.9256
10 24 -99.9256
11 24 -99.9256
12 24 -99.9256
13 24 -99.9256
14 24 -99.9256
15 24 -99.9256
16 24 -99.9256
17 24 -99.9256
18 24 -99.9256
19 24 -99.9256
20 24 -99.9256
21 24 -99.9256
22 24 -99.9256
23 24 -99.9256
24 24 -99.9256
25 24 -99.9256
26 24 -0.409068
27 24 8.78104
28 24 3.3175
29 24 4.27333
30 24 5.31166
31 24 5.18712
32 24 4.72597
33 24 4.6595
34 24 5.50291
35 24 4.92302
36 24 4.81227
37 24 4.87935
38 24 4.71146
39 24 4.21904
40 24 3.66864
41 24 -90.4838
42 24 3.31929
43 24 2.92857
44 24 3.16254
45 24 3.02452
46 24 2.88738
47 24 3.01175
48 24 2.39586
49 24 2.89315
50 24 2.50032
51 24 2.56177
52 24 3.41838
53 24 2.68225
54 24 1.98833
55 24 1.60617
56 24 1.00075
57 24 0.650009
58 24 -0.798003
59 24 0.816598
60 24 -3.3132
61 24 10.7987
62 24 -1.30757
63 24 -1.70294
64 24 -1.94428
65 24 -1.43285
66 24 19.2113
67 24 3.00461
68 24 47.2943
69 24 5.24711
70 24 2.61943
71 24 3.49459
72 24 5.69385
73 24 1.97869
74 24 5.42873
75 24 1.51564
76 24 4.41363
77 24 -4.073
78 24 3.86179
79 24 4.92508
80 24 2.03863
81 24 6.04911
82 24 6.86867
83 24 3.24906
84 24 5.18784
85 24 6.32989
86 24 2.77695
87 24 5.39283
88 24 6.25911
89 24 3.20522
90 24 18.2544
91 24 7.72209
92 24 6.04191
93 24 2.21836
94 24 -0.103343
95 24 5.20214
96 24 -10.206
97 24 0.0778009
98 24 -4.52937
99 24 -1.37064
100 24 0.844832
101 24 -1.02494
102 24 -99.9256
103 24 -99.9256
104 24 -99.9256
105 24 -99.9256
106 24 -99.9256
107 24 -99.9256
108 24 -99.9256
109 24 -99.9256
110 24 -99.9256
111 24 -99.9256
112 24 -99.9256
113 24 -99.9256
114 24 -99.9256
115 24 -99.9256
116 24 -99.9256
117 24 -99.9256
118 24 -99.9256
119 24 -99.9256
0 25 -99.9256
1 25 -99.9256
2 25 -99.9256
3 25 -99.9256
4 25 -99.9256
5 25 -99.9256
6 25 -99.9256
7 25 -99.9256
8 25 -99.9256
9 25 -99.9256
10 25 -99.9256
11 25 -99.9256
12 25 -99.9256
13 25 -99.9256
14 25 -99.9256
15 25 -99.9256
16 25 -99.9256
17 25 -99.9256
18 25 -99.9256
19 25 -99.9256
20 25 -99.9256
21 25 -99.9256
22 25 -99.9256
23 25 -99.9256
24 25 -99.9256
25 25 -99.9256
26 25 6.26008
27 25 11.3811
28 25 5.99738
29 25 6.83294
30 25 7.82745
31 25 7.63911
32 25 7.09051
33 25 6.98376
34 25 7.76655
35 25 7.12246
36 25 6.97747
37 25 7.01084
38 25 6.77573
39 25 6.20053
40 25 5.59022
41 25 -88.1854
42 25 5.15118
43 25 4.69869
44 25 4.8831
45 25 4.66329
46 25 4.5118
47 25 4.60963
48 25 3.91178
49 25 4.39795
50 25 3.91666
51 25 3.93186
52 25 4.74383
53 25 3.98627
54 25 3.23428
55 25 2.76594
56 25 2.16169
57 25 1.75361
58 25 0.313342
59 25 1.91567
60 25 -2.22
61 25 12.2039
62 25 -0.510382
63 25 -1.11713
64 25 -1.50846
65 25 -1.12037
66 25 20.1441
67 25 3.19954
68 25 49.0589
69 25 5.20662
70 25 2.45837
71 25 3.3292
72 25 5.67885
73 25 1.73525
74 25 5.32746
75 25 1.21448
76 25 4.16633
77 25 -4.71183
78 25 3.48721
79 25 4.5705
80 25 1.53637
81 25 5.56661
82 25 6.43751
83 25 2.64673
84 25 4.64461
85 25 5.77631
86 25 2.05852
87 25 4.71565
88 25 5.60491
89 25 2.38342
90 25 18.0011
91 25 7.04198
92 25 5.10906
93 25 1.25796
94 25 -1.17417
95 25 4.31079
96 25 -11.685
97 25 -0.962746
98 25 -5.78069
99 25 -2.47156
100 25 -0.445592
101 25 -99.9256
102 25 -99.9256
103 25 -99.9256
104 25 -99.9256
105 25 -99.9256
106 25 -99.9256
107 25 -99.9256
108 25 -99.9256
109 25 -99.9256
110 25 -99.9256
111 25 -99.9256
112 25 -99.9256
113 25 -99.9256
114 25 -99.9256
115 25 -99.9256
116 25 -99.9256
117 25 -99.9256
118 25 -99.9256
119 25 -99.9256
0 26 -99.9256
1 26 -99.9256
2 26 -99.9256
3 26 -99.9256
4 26 -99.9256
5 26 -99.9256
6 26 -99.9256
7 26 -99.9256
8 26 -99.9256
9 26 -99.9256
10 26 -99.9256
11 26 -99.9256
12 26 -99.9256
13 26 -99.9256
14 26 -99.9256
15 26 -99.9256
16 26 -99.9256
17 26 -99.9256
18 26 -99.9256
19 26 -99.9256
20 26 -99.9256
21 26 -99.9256
22 26 -99.9256
23 26 -99.9256
24 26 -99.9256
25 26 -99.9256
26 26 7.49236
27 26 12.1705
28 26 6.87269
29 26 7.61677
30 26 8.60948
31 26 8.35931
32 26 7.79593
33 26 7.67886
34 26 8.46751
35 26 7.75459
36 26 7.59214
37 26 7.60332
38 26 7.37527
39 26 6.76569
40 26 6.14678
41 26 -87.2147
42 26 5.65164
43 26 5.22339
44 26 5.38038
45 26 5.1947
46 26 5.00828
47 26 5.12291
48 26 4.4158
49 26 4.90767
50 26 4.43617
51 26 4.44095
52 26 5.26414
53 26 4.46217
54 26 3.72502
55 26 3.26892
56 26 2.67641
57 26 2.32012
58 26 0.90497
59 26 2.5547
60 26 -1.55152
61 26 13.341
62 26 0.0166876
63 26 -0.704994
64 26 -1.23717
65 26 -0.963695
66 26 20.9919
67 26 3.25223
68 26 50.8078
69 26 5.26966
70 26 2.4228
71 26 3.27215
72 26 5.7372
73 26 1.56737
74 26 5.3546
75 26 1.1081
76 26 4.14886
77 26 -5.04301
78 26 3.47102
79 26 4.58112
80 26 1.40213
81 26 5.52659
82 26 6.48318
83 26 2.55864
84 26 4.64596
85 26 5.80349
86 26 1.98106
87 26 4.71338
88 26 5.62002
89 26 2.30278
90 26 18.5535
91 26 7.18401
92 26 5.03371
93 26 1.17589
94 26 -1.33687
95 26 4.37223
96 26 -12.173
97 26 -0.993808
98 26 -6.00536
99 26 -2.52435
100 26 -0.56778
101 26 -99.9256
102 26 -99.9256
103 26 -99.9256
104 26 -99.9256
105 26 -99.9256
106 26 -99.9256
107 26 -99.9256
108 26 -99.9256
109 26 -99.9256
110 26 -99.9256
111 26 -99.9256
112 26 -99.9256
113 26 -99.9256
114 26 -99.9256
115 26 -99.9256
116 26 -99.9256
117 26 -99.9256
118 26 -99.9256
119 26 -99.9256
0 27 -99.9256
1 27 -99.9256
2 27 -99.9256
3 27 -99.9256
4 27 -99.9256
5 27 -99.9256
6 27 -99.9256
7 27 -99.9256
8 27 -99.9256
9 27 -99.9256
10 27 -99.9256
11 27 -99.9256
12 27 -99.9256
13 27 -99.9256
14 27 -99.9256
15 27 -99.9256
16 27 -99.9256
17 27 -99.9256
18 27 -99.9256
19 27 -99.9256
20 27 -99.9256
21 27 -99.9256
22 27 -99.9256
23 27 -99.9256
24 27 -99.9256
25 27 -99.9256
26 27 7.49844
27 27 12.627
28 27 7.14781
29 27 7.85273
30 27 8.84359
31 27 8.60856
32 27 7.96288
33 27 7.84857
34 27 8.63728
35 27 7.89225
36 27 7.70438
37 27 7.71035
38 27 7.43644
39 27 6.83077
40 27 6.15221
41 27 -86.7589
42 27 5.6427
43 27 5.19617
44 27 5.3818
45 27 5.18103
46 27 5.00648
47 27 5.1138
48 27 4.4119
49 27 4.87955
50 27 4.4209
51 27 4.40001
52 27 5.25038
53 27 4.45457
54 27 3.73662
55 27 3.31752
56 27 2.73449
57 27 2.40425
58 27 1.04188
59 27 2.70903
60 27 -1.37198
61 27 14.0637
62 27 0.2247
63 27 -0.635863
64 27 -1.29337
65 27 -1.11612
66 27 21.5057
67 27 3.14684
68 27 52.4579
69 27 5.13418
70 27 2.23923
71 27 3.05432
72 27 5.69055
73 27 1.26973
74 27 5.19149
75 27 0.802429
76 27 3.90383
77 27 -5.64354
78 27 3.19128
79 27 4.36923
80 27 1.03695
81 27 5.24015
82 27 6.30483
83 27 2.22955
84 27 4.40086
85 27 5.61297
86 27 1.65638
87 27 4.49092
88 27 5.46693
89 27 2.03508
90 27 18.9427
91 27 7.16185
92 27 4.80015
93 27 0.956073
94 27 -1.61806
95 27 4.29068
96 27 -12.8028
97 27 -1.16262
98 27 -6.3503
99 27 -2.69109
100 27 -0.760406
101 27 -99.9256
102 27 -99.9256
103 27 -99.9256
104 27 -99.9256
105 27 -99.9256
106 27 -99.9256
107 27 -99.9256
108 27 -99.9256
109 27 -99.9256
110 27 -99.9256
111 27 -99.9256
112 27 -99.9256
113 27 -99.9256
114 27 -99.9256
115 27 -99.9256
116 27 -99.9256
117 27 -99.9256
118 27 -99.9256
119 27 -99.9256
0 28 -99.9256
1 28 -99.9256
2 28 -99.9256
3 28 -99.9256
4 28 -99.9256
5 28 -99.9256
6 28 -99.9256
7 28 -99.9256
8 28 -99.9256
9 28 -99.9256
10 28 -99.9256
11 28 -99.9256
12 28 -99.9256
13 28 -99.9256
14 28 -99.9256
15 28 -99.9256
16 28 -99.9256
17 28 -99.9256
18 28 -99.9256
19 28 -99.9256
20 28 -99.9256
21 28 -99.9256
22 28 -99.9256
23 28 -99.9256
24 28 -99.9256
25 28 -3.49709
26 28 4.82165
27 28 10.5086
28 28 4.90045
29 28 5.60067
30 28 6.62165
31 28 6.41213
32 28 5.71885
33 28 5.64584
34 28 6.47916
35 28 5.7046
36 28 5.54934
37 28 5.5654
38 28 5.30987
39 28 4.69467
40 28 4.00748
41 28 -88.4554
42 28 3.50884
43 28 3.03972
44 28 3.25686
45 28 3.09218
46 28 2.92968
47 28 3.05781
48 28 2.35914
49 28 2.88056
50 28 2.42375
51 28 2.44901
52 28 3.37331
53 28 2.5994
54 28 1.94556
55 28 1.56664
56 28 1.0378
57 28 0.751618
58 28 -0.526571
59 28 1.21026
60 28 -2.85364
61 28 13.1088
62 28 -1.11539
63 28 -2.04522
64 28 -2.83127
65 28 -2.77196
66 28 20.6376
67 28 1.70526
68 28 52.7917
69 28 3.75002
70 28 0.79665
71 28 1.60589
72 28 4.43095
73 28 -0.19559
74 28 3.86136
75 28 -0.660662
76 28 2.57177
77 28 -7.31079
78 28 1.83367
79 28 3.12531
80 28 -0.298009
81 28 3.97123
82 28 5.19326
83 28 0.990327
84 28 3.28206
85 28 4.54799
86 28 0.507132
87 28 3.44736
88 28 4.51648
89 28 1.00745
90 28 18.5863
91 28 6.47163
92 28 3.90911
93 28 0.121149
94 28 -2.5227
95 28 3.63497
96 28 -13.9757
97 28 -1.83648
98 28 -7.15888
99 28 -3.28259
100 28 -1.46752
101 28 -99.9256
102 28 -99.9256
103 28 -99.9256
104 28 -99.9256
105 28 -99.9256
106 28 -99.9256
107 28 -99.9256
108 28 -99.9256
109 28 -99.9256
110 28 -99.9256
111 28 -99.9256
112 28 -99.9256
113 28 -99.9256
114 28 -99.9256
115 28 -99.9256
116 28 -99.9256
117 28 -99.9256
118 28 -99.9256
119 28 -99.9256
0 29 -99.9256
1 29 -99.9256
2 29 -99.9256
3 29 -99.9256
4 29 -99.9256
5 29 -99.9256
6 29 -99.9256
7 29 -99.9256
8 29 -99.9256
9 29 -99.9256
10 29 -99.9256
11 29 -99.9256
12 29 -99.9256
13 29 -99.9256
14 29 -99.9256
15 29 -99.9256
16 29 -99.9256
17 29 -99.9256
18 29 -99.9256
19 29 -99.9256
20 29 -99.9256
21 29 -99.9256
22 29 -99.9256
23 29 -99.9256
24 29 -99.9256
25 29 0.665366
26 29 4.81681
27 29 10.6898
28 29 5.01601
29 29 5.63627
30 29 6.65696
31 29 6.40767
32 29 5.66744
33 29 5.57471
34 29 6.41111
35 29 5.59543
36 29 5.39655
37 29 5.41006
38 29 5.11066
39 29 4.47121
40 29 3.75185
41 29 -88.2685
42 29 3.19068
43 29 2.72919
44 29 2.92451
45 29 2.78637
46 29 2.58303
47 29 2.72209
48 29 2.01521
49 29 2.52827
50 29 2.10997
51 29 2.15704
52 29 3.10939
53 29 2.35596
54 29 1.72867
55 29 1.35189
56 29 0.849781
57 29 0.598035
58 29 -0.64758
59 29 1.12004
60 29 -2.93175
61 29 13.5866
62 29 -1.1062
63 29 -1.97785
64 29 -2.90109
65 29 -2.80072
66 29 21.4633
67 29 1.88949
68 29 54.683
69 29 3.98387
70 29 0.937637
71 29 1.68367
72 29 4.68731
73 29 -0.171998
74 29 4.00542
75 29 -0.666661
76 29 2.65385
77 29 -7.54773
78 29 1.88426
79 29 3.22313
80 29 -0.327422
81 29 4.03903
82 29 5.34881
83 29 0.988182
84 29 3.38109
85 29 4.68385
86 29 0.531968
87 29 3.60411
88 29 4.72504
89 29 1.14184
90 29 19.3498
91 29 6.87154
92 29 4.05739
93 29 0.286621
94 29 -2.42238
95 29 3.91892
96 29 -14.2438
97 29 -1.63175
98 29 -7.10928
99 29 -3.08623
100 29 -1.59017
101 29 -99.9256
102 29 -99.9256
103 29 -99.9256
104 29 -99.9256
105 29 -99.9256
106 29 -99.9256
107 29 -99.9256
108 29 -99.9256
109 29 -99.9256
110 29 -99.9256
111 29 -99.9256
112 29 -99.9256
113 29 -99.9256
114 29 -99.9256
115 29 -99.9256
116 29 -99.9256
117 29 -99.9256
118 29 -99.9256
119 29 -99.9256
0 30 -99.9256
1 30 -99.9256
2 30 -99.9256
3 30 -99.9256
4 30 -99.9256
5 30 -99.9256
6 30 -99.9256
7 30 -99.9256
8 30 -99.9256
9 30 -99.9256
10 30 -99.9256
11 30 -99.9256
12 30 -99.9256
13 30 -99.9256
14 30 -99.9256
15 30 -99.9256
16 30 -99.9256
17 30 -99.9256
18 30 -99.9256
19 30 -99.9256
20 30 -99.9256
21 30 -99.9256
22 30 -99.9256
23 30 -99.9256
24 30 -99.9256
25 30 8.007
26 30 8.3161
27 30 14.0278
28 30 8.3138
29 30 8.8661
30 30 9.85153
31 30 9.53164
32 30 8.69298
33 30 8.52271
34 30 9.31178
35 30 8.43926
36 30 8.18409
37 30 8.14338
38 30 7.78504
39 30 7.08748
40 30 6.31333
41 30 -85.2751
42 30 5.63808
43 30 5.13987
44 30 5.27526
45 30 5.10669
46 30 4.84385
47 30 4.94771
48 30 4.22189
49 30 4.68796
50 30 4.25441
51 30 4.26382
52 30 5.21609
53 30 4.39046
54 30 3.74682
55 30 3.33194
56 30 2.81494
57 30 2.53159
58 30 1.28372
59 30 3.04079
60 30 -1.06111
61 30 15.9108
62 30 0.771322
63 30 -0.12079
64 30 -1.04228
65 30 -0.951027
66 30 24.0944
67 30 3.82412
68 30 58.3198
69 30 5.85057
70 30 2.6705
71 30 3.3045
72 30 6.46964
73 30 1.28971
74 30 5.58861
75 30 0.721078
76 30 4.10405
77 30 -6.45758
78 30 3.23452
79 30 4.59924
80 30 0.843277
81 30 5.25146
82 30 6.63973
83 30 2.09736
84 30 4.54193
85 30 5.83582
86 30 1.54489
87 30 4.69812
88 30 5.87844
89 30 2.1444
90 30 20.9742
91 30 8.06766
92 30 5.03356
93 30 1.21164
94 30 -1.59305
95 30 4.93586
96 30 -13.8371
97 30 -0.777123
98 30 -6.43786
99 30 -2.23114
100 30 -1.04231
101 30 -99.9256
102 30 -99.9256
103 30 -99.9256
104 30 -99.9256
105 30 -99.9256
106 30 -99.9256
107 30 -99.9256
108 30 -99.9256
109 30 -99.9256
110 30 -99.9256
111 30 -99.9256
112 30 -99.9256
113 30 -99.9256
114 30 -99.9256
115 30 -99.9256
116 30 -99.9256
117 30 -99.9256
118 30 -99.9256
119 30 -99.9256
0 31 -99.9256
1 31 -99.9256
2 31 -99.9256
3 31 -99.9256
4 31 -99.9256
5 31 -99.9256
6 31 -99.9256
7 31 -99.9256
8 31 -99.9256
9 31 -99.9256
10 31 -99.9256
11 31 -99.9256
12 31 -99.9256
13 31 -99.9256
14 31 -99.9256
15 31 -99.9256
16 31 -99.9256
17 31 -99.9256
18 31 -99.9256
19 31 -99.9256
20 31 -99.9256
21 31 -99.9256
22 31 -99.9256
23 31 -99.9256
24 31 -99.9256
25 31 7.52005
26 31 7.66079
27 31 13.33
28 31 7.58135
29 31 8.08787
30 31 9.04716
31 31 8.68969
32 31 7.78366
33 31 7.59915
34 31 8.36686
35 31 7.38966
36 31 7.14225
37 31 7.07621
38 31 6.68655
39 31 5.93502
40 31 5.12167
41 31 -86.0491
42 31 4.40454
43 31 3.87039
44 31 3.97287
45 31 3.79821
46 31 3.5398
47 31 3.65537
48 31 2.92269
49 31 3.39618
50 31 2.9556
51 31 2.97414
52 31 3.95704
53 31 3.16434
54 31 2.50908
55 31 2.08427
56 31 1.59386
57 31 1.29778
58 31 0.0955342
59 31 1.85531
60 31 -2.24576
61 31 15.2357
62 31 -0.376188
63 31 -1.24109
64 31 -1.99817
65 31 -1.88773
66 31 23.9286
67 31 3.00376
68 31 59.2404
69 31 4.99332
70 31 1.72
71 31 2.33845
72 31 5.65135
73 31 0.205981
74 31 4.62354
75 31 -0.406902
76 31 3.0538
77 31 -7.87612
78 31 2.11771
79 31 3.5435
80 31 -0.335891
81 31 4.10429
82 31 5.58033
83 31 0.912763
84 31 3.44545
85 31 4.77701
86 31 0.395623
87 31 3.66195
88 31 4.89168
89 31 1.06136
90 31 20.5431
91 31 7.24646
92 31 4.03058
93 31 0.22815
94 31 -2.71698
95 31 4.01826
96 31 -15.3206
97 31 -1.80179
98 31 -7.69775
99 31 -3.28902
100 31 -2.64331
101 31 -99.9256
102 31 -99.9256
103 31 -99.9256
104 31 -99.9256
105 31 -99.9256
106 31 -99.9256
107 31 -99.9256
108 31 -99.9256
109 31 -99.9256
110 31 -99.9256
111 31 -99.9256
112 31 -99.9256
113 31 -99.9256
114 31 -99.9256
115 31 -99.9256
116 31 -99.9256
117 31 -99.9256
118 31 -99.9256
119 31 -99.9256
0 32 -99.9256
1 32 -99.9256
2 32 -99.9256
3 32 -99.9256
4 32 -99.9256
5 32 -99.9256
6 32 -99.9256
7 32 -99.9256
8 32 -99.9256
9 32 -99.9256
10 32 -99.9256
11 32 -99.9256
12 32 -99.9256
13 32 -99.9256
14 32 -99.9256
15 32 -99.9256
16 32 -99.9256
17 32 -99.9256
18 32 -99.9256
19 32 -99.9256
20 32 -99.9256
21 32 -99.9256
22 32 -99.9256
23 32 -99.9256
24 32 -99.9256
25 32 7.7443
26 32 7.4841
27 32 13.0008
28 32 7.28812
29 32 7.68258
30 32 8.59789
31 32 8.22098
32 32 7.21004
33 32 6.9876
34 32 7.73068
35 32 6.67954
36 32 6.37576
37 32 6.27967
38 32 5.84584
39 32 5.03847
40 32 4.13698
41 32 -86.6341
42 32 3.31579
43 32 2.76596
44 32 2.86109
45 32 2.66257
46 32 2.3838
47 32 2.50666
48 32 1.75506
49 32 2.22891
50 32 1.72388
51 32 1.7509
52 32 2.72229
53 32 1.90838
54 32 1.23474
55 32 0.809284
56 32 0.313596
57 32 0.011883
58 32 -1.17708
59 32 0.563948
60 32 -3.56968
61 32 14.421
62 32 -1.63069
63 32 -2.42182
64 32 -3.05963
65 32 -3.00184
66 32 23.6334
67 32 2.08208
68 32 59.9795
69 32 3.96965
70 32 0.588156
71 32 1.14198
72 32 4.57999
73 32 -1.15134
74 32 3.34869
75 32 -1.88543
76 32 1.61648
77 32 -9.70209
78 32 0.581657
79 32 2.01069
80 32 -2.01003
81 32 2.47275
82 32 4.04522
83 32 -0.762262
84 32 1.84175
85 32 3.19935
86 32 -1.342
87 32 2.0246
88 32 3.29648
89 32 -0.661717
90 32 19.4542
91 32 5.75834
92 32 2.30303
93 32 -1.49087
94 32 -4.53376
95 32 2.37756
96 32 -17.5464
97 32 -3.58276
98 32 -9.73044
99 32 -5.10436
100 32 -3.87085
101 32 -99.9256
102 32 -99.9256
103 32 -99.9256
104 32 -99.9256
105 32 -99.9256
106 32 -99.9256
107 32 -99.9256
108 32 -99.9256
109 32 -99.9256
110 32 -99.9256
111 32 -99.9256
112 32 -99.9256
113 32 -99.9256
114 32 -99.9256
115 32 -99.9256
116 32 -99.9256
117 32 -99.9256
118 32 -99.9256
119 32 -99.9256
0 33 -99.9256
1 33 -99.9256
2 33 -99.9256
3 33 -99.9256
4 33 -99.9256
5 33 -99.9256
6 33 -99.9256
7 33 -99.9256
8 33 -99.9256
9 33 -99.9256
10 33 -99.9256
11 33 -99.9256
12 33 -99.9256
13 33 -99.9256
14 33 -99.9256
15 33 -99.9256
16 33 -99.9256
17 33 -99.9256
18 33 -99.9256
19 33 -99.9256
20 33 -99.9256
21 33 -99.9256
22 33 -99.9256
23 33 -99.9256
24 33 -99.9256
25 33 8.35221
26 33 8.17768
27 33 13.6524
28 33 7.98251
29 33 8.38397
30 33 9.3104
31 33 8.93752
32 33 7.8804
33 33 7.64564
34 33 8.42266
35 33 7.32577
36 33 7.01543
37 33 6.94078
38 33 6.49888
39 33 5.68626
40 33 4.76627
41 33 -85.5225
42 33 3.98016
43 33 3.46247
44 33 3.57709
45 33 3.42804
46 33 3.19054
47 33 3.3659
48 33 2.65095
49 33 3.13665
50 33 2.69984
51 33 2.73424
52 33 3.75154
53 33 2.96701
54 33 2.31878
55 33 1.94097
56 33 1.47016
57 33 1.2022
58 33 0.0625303
59 33 1.87199
60 33 -2.23572
61 33 16.2752
62 33 -0.104925
63 33 -0.741843
64 33 -1.22538
65 33 -1.10144
66 33 26.3416
67 33 4.14644
68 33 63.8175
69 33 6.1218
70 33 2.67748
71 33 3.23166
72 33 6.82926
73 33 0.880986
74 33 5.5316
75 33 0.166334
76 33 3.79391
77 33 -7.84371
78 33 2.75297
79 33 4.2443
80 33 0.128887
81 33 4.72075
82 33 6.42264
83 33 1.53228
84 33 4.26358
85 33 5.71487
86 33 1.10457
87 33 4.56943
88 33 5.94766
89 33 1.90397
90 33 22.6964
91 33 8.62926
92 33 5.0106
93 33 1.26991
94 33 -1.84877
95 33 5.28381
96 33 -15.1939
97 33 -0.696603
98 33 -7.14915
99 33 -2.35989
100 33 -99.9256
101 33 -99.9256
102 33 -99.9256
103 33 -99.9256
104 33 -99.9256
105 33 -99.9256
106 33 -99.9256
107 33 -99.9256
108 33 -99.9256
109 33 -99.9256
110 33 -99.9256
111 33 -99.9256
112 33 -99.9256
113 33 -99.9256
114 33 -99.9256
115 33 -99.9256
116 33 -99.9256
117 33 -99.9256
118 33 -99.9256
119 33 -99.9256
0 34 -99.9256
1 34 -99.9256
2 34 -99.9256
3 34 -99.9256
4 34 -99.9256
5 34 -99.9256
6 34 -99.9256
7 34 -99.9256
8 34 -99.9256
9 34 -99.9256
10 34 -99.9256
11 34 -99.9256
12 34 -99.9256
13 34 -99.9256
14 34 -99.9256
15 34 -99.9256
16 34 -99.9256
17 34 -99.9256
18 34 -99.9256
19 34 -99.9256
20 34 -99.9256
21 34 -99.9256
22 34 -99.9256
23 34 -99.9256
24 34 -99.9256
25 34 8.41188
26 34 8.1966
27 34 13.5967
28 34 7.96035
29 34 8.33507
30 34 9.24456
31 34 8.83487
32 34 7.7078
33 34 7.46374
34 34 8.25386
35 34 7.09096
36 34 6.73721
37 34 6.65212
38 34 6.18904
39 34 5.34828
40 34 4.40175
41 34 -85.4378
42 34 3.6025
43 34 3.09923
44 34 3.18412
45 34 3.06943
46 34 2.79113
47 34 3.0023
48 34 2.30675
49 34 2.79215
50 34 2.32921
51 34 2.39954
52 34 3.44256
53 34 2.64755
54 34 2.01565
55 34 1.61048
56 34 1.17021
57 34 0.906107
58 34 -0.226694
59 34 1.61148
60 34 -2.40617
61 34 16.7013
62 34 -0.0527389
63 34 -0.573616
64 34 -0.945418
65 34 -0.825892
66 34 27.4452
67 34 4.59869
68 34 66.0079
69 34 6.57141
70 34 3.03571
71 34 3.56599
72 34 7.29298
73 34 1.08047
74 34 5.85602
75 34 0.358158
76 34 4.04599
77 34 -7.93556
78 34 2.96535
79 34 4.52698
80 34 0.281081
81 34 4.95736
82 34 6.77845
83 34 1.77023
84 34 4.61916
85 34 6.09101
86 34 1.38873
87 34 4.98694
88 34 6.39752
89 34 2.26022
90 34 23.7032
91 34 9.23903
92 34 5.40945
93 34 1.703
94 34 -1.4396
95 34 5.90924
96 34 -15.1386
97 34 -0.150968
98 34 -6.86174
99 34 -2.08663
100 34 -99.9256
101 34 -99.9256
102 34 -99.9256
103 34 -99.9256
104 34 -99.9256
105 34 -99.9256
106 34 -99.9256
107 34 -99.9256
108 34 -99.9256
109 34 -99.9256
110 34 -99.9256
111 34 -99.9256
112 34 -99.9256
113 34 -99.9256
114 34 -99.9256
115 34 -99.9256
116 34 -99.9256
117 34 -99.9256
118 34 -99.9256
119 34 -99.9256
0 35 -99.9256
1 35 -99.9256
2 35 -99.9256
3 35 -99.9256
4 35 -99.9256
5 35 -99.9256
6 35 -99.9256
7 35 -99.9256
8 35 -99.9256
9 35 -99.9256
10 35 -99.9256
11 35 -99.9256
12 35 -99.9256
13 35 -99.9256
14 35 -99.9256
15 35 -99.9256
16 35 -99.9256
17 35 -99.9256
18 35 -99.9256
19 35 -99.9256
20 35 -99.9256
21 35 -99.9256
22 35 -99.9256
23 35 -99.9256
24 35 -99.9256
25 35 8.42492
26 35 8.25112
27 35 13.5811
28 35 7.97797
29 35 8.30771
30 35 9.21401
31 35 8.78698
32 35 7.57206
33 35 7.34312
34 35 8.10094
35 35 6.88959
36 35 6.52198
37 35 6.40791
38 35 5.93175
39 35 5.13242
40 35 4.11956
41 35 -85.2626
42 35 3.35051
43 35 2.83447
44 35 2.955
45 35 2.86552
46 35 2.57324
47 35 2.77567
48 35 2.07972
49 35 2.58846
50 35 2.13001
51 35 2.1873
52 35 3.27321
53 35 2.46532
54 35 1.83391
55 35 1.44541
56 35 0.98686
57 35 0.73582
58 35 -0.378012
59 35 1.54362
60 35 -2.42964
61 35 17.2801
62 35 0.190433
63 35 -0.228616
64 35 -0.431929
65 35 -0.306616
66 35 28.7625
67 35 5.27965
68 35 68.4182
69 35 7.14597
70 35 3.43649
71 35 3.98519
72 35 7.88509
73 35 1.39793
74 35 6.28306
75 35 0.631884
76 35 4.38871
77 35 -7.91479
78 35 3.27631
79 35 4.9018
80 35 0.531968
81 35 5.29628
82 35 7.21515
83 35 2.10467
84 35 5.0801
85 35 6.60885
86 35 1.77329
87 35 5.49116
88 35 6.96895
89 35 2.70921
90 35 24.8043
91 35 9.95363
92 35 5.94011
93 35 2.24912
94 35 -0.965285
95 35 6.60338
96 35 -15.0254
97 35 0.36546
98 35 -6.61864
99 35 -1.91106
100 35 -99.9256
101 35 -99.9256
102 35 -99.9256
103 35 -99.9256
104 35 -99.9256
105 35 -99.9256
106 35 -99.9256
107 35 -99.9256
108 35 -99.9256
109 35 -99.9256
110 35 -99.9256
111 35 -99.9256
112 35 -99.9256
113 35 -99.9256
114 35 -99.9256
115 35 -99.9256
116 35 -99.9256
117 35 -99.9256
118 35 -99.9256
119 35 -99.9256
0 36 -99.9256
1 36 -99.9256
2 36 -99.9256
3 36 -99.9256
4 36 -99.9256
5 36 -99.9256
6 36 -99.9256
7 36 -99.9256
8 36 -99.9256
9 36 -99.9256
10 36 -99.9256
11 36 -99.9256
12 36 -99.9256
13 36 -99.9256
14 36 -99.9256
15 36 -99.9256
16 36 -99.9256
17 36 -99.9256
18 36 -99.9256
19 36 -99.9256
20 36 -99.9256
21 36 -99.9256
22 36 -99.9256
23 36 -99.9256
24 36 2.07604
25 36 9.21574
26 36 9.18994
27 36 14.3999
28 36 8.84445
29 36 9.1313
30 36 10.018
31 36 9.59105
32 36 8.30332
33 36 8.03967
34 36 8.81516
35 36 7.55015
36 36 7.15746
37 36 7.05712
38 36 6.621
39 36 5.81108
40 36 4.77627
41 36 -84.1503
42 36 4.01203
43 36 3.48979
44 36 3.64343
45 36 3.55127
46 36 3.26271
47 36 3.50674
48 36 2.84243
49 36 3.32193
50 36 2.89598
51 36 2.99403
52 36 4.07271
53 36 3.2865
54 36 2.6577
55 36 2.26065
56 36 1.84518
57 36 1.59633
58 36 0.523323
59 36 2.56485
60 36 -1.34909
61 36 18.9582
62 36 1.54541
63 36 1.25321
64 36 1.19839
65 36 1.30575
66 36 31.2061
67 36 7.0763
68 36 71.9286
69 36 8.69112
70 36 4.72065
71 36 5.08282
72 36 9.10605
73 36 2.39509
74 36 7.43706
75 36 1.59005
76 36 5.44861
77 36 -7.19627
78 36 4.3111
79 36 5.99024
80 36 1.49894
81 36 6.34399
82 36 8.36012
83 36 3.12494
84 36 6.21977
85 36 7.82346
86 36 2.89007
87 36 6.69962
88 36 8.25769
89 36 3.90104
90 36 26.6357
91 36 11.4015
92 36 7.21081
93 36 3.55042
94 36 0.300073
95 36 8.11356
96 36 -14.0406
97 36 1.74495
98 36 -5.5396
99 36 -1.81734
100 36 -99.9256
101 36 -99.9256
102 36 -99.9256
103 36 -99.9256
104 36 -99.9256
105 36 -99.9256
106 36 -99.9256
107 36 -99.9256
108 36 -99.9256
109 36 -99.9256
110 36 -99.9256
111 36 -99.9256
112 36 -99.9256
113 36 -99.9256
114 36 -99.9256
115 36 -99.9256
116 36 -99.9256
117 36 -99.9256
118 36 -99.9256
119 36 -99.9256
0 37 -99.9256
1 37 -99.9256
2 37 -99.9256
3 37 -99.9256
4 37 -99.9256
5 37 -99.9256
6 37 -99.9256
7 37 -99.9256
8 37 -99.9256
9 37 -99.9256
10 37 -99.9256
11 37 -99.9256
12 37 -99.9256
13 37 -99.9256
14 37 -99.9256
15 37 -99.9256
16 37 -99.9256
17 37 -99.9256
18 37 -99.9256
19 37 -99.9256
20 37 -99.9256
21 37 -99.9256
22 37 -99.9256
23 37 -99.9256
24 37 2.57782
25 37 9.93849
26 37 9.73026
27 37 14.933
28 37 9.44481
29 37 9.72074
30 37 10.6151
31 37 10.1995
32 37 8.85678
33 37 8.59542
34 37 9.40145
35 37 8.11728
36 37 7.76978
37 37 7.70601
38 37 7.30832
39 37 6.51023
40 37 5.46416
41 37 -82.9719
42 37 4.74951
43 37 4.25552
44 37 4.44263
45 37 4.37942
46 37 4.13426
47 37 4.41893
48 37 3.78167
49 37 4.30608
50 37 3.88146
51 37 4.01128
52 37 5.13258
53 37 4.367
54 37 3.7746
55 37 3.40243
56 37 2.99451
57 37 2.80017
58 37 1.91834
59 37 4.08387
60 37 0.237498
61 37 21.1827
62 37 3.429
63 37 3.29198
64 37 3.4644
65 37 3.56532
66 37 34.3026
67 37 9.54326
68 37 75.9385
69 37 10.8497
70 37 6.6456
71 37 6.82273
72 37 10.877
73 37 3.86598
74 37 9.05508
75 37 3.11474
76 37 7.10964
77 37 -5.85092
78 37 6.00979
79 37 7.78412
80 37 3.20916
81 37 8.17113
82 37 10.3345
83 37 4.99431
84 37 8.22345
85 37 9.91136
86 37 4.92135
87 37 8.86477
88 37 10.4894
89 37 6.05795
90 37 29.4604
91 37 13.823
92 37 9.48258
93 37 5.87203
94 37 2.57679
95 37 10.6457
96 37 -11.9953
97 37 4.16242
98 37 -3.41179
99 37 -2.21155
100 37 -99.9256
101 37 -99.9256
102 37 -99.9256
103 37 -99.9256
104 37 -99.9256
105 37 -99.9256
106 37 -99.9256
107 37 -99.9256
108 37 -99.9256
109 37 -99.9256
110 37 -99.9256
111 37 -99.9256
112 37 -99.9256
113 37 -99.9256
114 37 -99.9256
115 37 -99.9256
116 37 -99.9256
117 37 -99.9256
118 37 -99.9256
119 37 -99.9256
0 38 -99.9256
1 38 -99.9256
2 38 -99.9256
3 38 -99.9256
4 38 -99.9256
5 38 -99.9256
6 38 -99.9256
7 38 -99.9256
8 38 -99.9256
9 38 -99.9256
10 38 -99.9256
11 38 -99.9256
12 38 -99.9256
13 38 -99.9256
14 38 -99.9256
15 38 -99.9256
16 38 -99.9256
17 38 -99.9256
18 38 -99.9256
19 38 -99.9256
20 38 -99.9256
21 38 -99.9256
22 38 -99.9256
23 38 -99.9256
24 38 2.80088
25 38 10.374
26 38 9.96834
27 38 15.1671
28 38 9.74758
29 38 9.96986
30 38 10.8677
31 38 10.4457
32 38 9.06234
33 38 8.77883
34 38 9.63637
35 38 8.33777
36 38 8.01675
37 38 7.9779
38 38 7.60014
39 38 6.79303
40 38 5.74744
41 38 -82.2297
42 38 5.04688
43 38 4.56535
44 38 4.73954
45 38 4.72918
46 38 4.47919
47 38 4.7746
48 38 4.15675
49 38 4.67713
50 38 4.27949
51 38 4.43466
52 38 5.57472
53 38 4.80353
54 38 4.2201
55 38 3.86797
56 38 3.48559
57 38 3.37812
58 38 2.66512
59 38 4.89019
60 38 1.11971
61 38 22.6642
62 38 4.58981
63 38 4.59708
64 38 4.95429
65 38 5.06514
66 38 36.6208
67 38 11.0488
68 38 78.9953
69 38 12.0322
70 38 7.59943
71 38 7.57343
72 38 11.6564
73 38 4.24154
74 38 9.51036
75 38 3.41697
76 38 7.5277
77 38 -5.75791
78 38 6.42675
79 38 8.27434
80 38 3.59141
81 38 8.66076
82 38 10.9403
83 38 5.49026
84 38 8.83078
85 38 10.5752
86 38 5.49665
87 38 9.56973
88 38 11.2723
89 38 6.74697
90 38 30.8208
91 38 14.8
92 38 10.2629
93 38 6.7023
94 38 3.34434
95 38 11.6545
96 38 -11.5268
97 38 4.96202
98 38 -2.86721
99 38 -2.97869
100 38 -99.9256
101 38 -99.9256
102 38 -99.9256
103 38 -99.9256
104 38 -99.9256
105 38 -99.9256
106 38 -99.9256
107 38 -99.9256
108 38 -99.9256
109 38 -99.9256
110 38 -99.9256
111 38 -99.9256
112 38 -99.9256
113 38 -99.9256
114 38 -99.9256
115 38 -99.9256
116 38 -99.9256
117 38 -99.9256
118 38 -99.9256
119 38 -99.9256
0 39 -99.9256
1 39 -99.9256
2 39 -99.9256
3 39 -99.9256
